26.15384809937758	-0.17715642806254997	45.245497427129536
18.333756688844453	-0.3377593664504845	36.87837544157615
-2.454845811282172	4.951047449435405	31.723622699483094
-33.615894284083915	12.596919941527824	35.42217906740747
9.666792691681918	12.749305511629322	35.26576556126077
43.52015401954355	4.79644386340566	29.906187964071584
54.24357124525068	9.37519242170063	31.345900824161504
37.72877283196247	10.560137631135008	40.15311662846695
15.996649036202871	8.320348196149249	45.422741703333756
-16.529582634992007	11.268923676190822	47.96983231220247
-53.29324080849564	3.58937363386779	43.074258513832866
-77.49732774529501	6.720257035662807	23.549484135712884
-75.07452401381336	16.748460411760494	3.769848766774295
-72.87855204060871	15.91936350120101	2.59368772018031
-67.84043977975966	19.451564532505067	7.049374490566627
-68.97900718312994	24.973978192985797	4.12136571885233
-86.25658608944575	21.361567043903708	-1.6532573331805287
-82.34745842742045	15.680309215321026	-2.4951110521765187
-78.00921257775457	15.789915057791102	-0.9421909849787354
-84.84281055574037	21.54536550174479	9.30650398810056
-64.95071966147906	9.314049024039303	21.91292417910095
-50.018580648690225	6.2862036769709615	18.94121675739413
-29.594883324611857	1.686159213898938	26.23593316690808
-8.343954986762446	-2.3692387245669106	44.22013776469942
-49.69452784887834	-4.496260731927898	22.247551098750645
-78.81934863925196	-0.18198432707392903	0.8504002529069552
-82.89020843327252	-4.866717831501358	6.7042858062721615
-71.11769473303848	-1.1067953809047353	19.011005364144435
-52.33116249999377	2.2449819279161116	31.00668864438575
-22.797662996235566	3.519706594798726	48.76044664797871
12.780680902179187	12.9669809323409	55.93061115812543
40.386055667289305	2.293168523868833	49.33757525560222
43.83474025151476	-11.509189224525025	34.65500975119177
40.93374453716024	-11.06232722594613	32.279474169547484
35.1589496979942	-14.421739617948932	37.41105297241053
38.94504497672067	-20.05738464440767	34.8753985932926
56.6349076571049	-15.33716627247165	33.168346140866234
52.8625340940936	-11.411183092763793	31.593758700589845
48.77909211444512	-12.75653255215977	30.957527524862595
51.757632526212866	-12.219840387695267	43.50206739494178
